2.560389 -14.343203 9.523955 -0.252208 0.761186 0.597484 
12.494589 -14.627357 16.534922 0.620567 -0.768152 -0.157607 
8.640701 7.425453 20.762131 -0.986418 -0.164194 -0.004376 
5.555339 17.167727 9.339678 0.578995 -0.803612 0.137738 
15.438290 -1.934049 3.286559 0.753335 0.247227 -0.609397 
-7.253527 -13.352610 27.723343 -0.577793 -0.713257 0.396762 
3.089178 20.146345 12.723352 -0.622767 -0.769936 -0.139142 
7.738088 10.908249 13.028498 0.901795 0.311706 0.299341 
-7.734910 -14.005321 26.026093 0.605420 0.683739 -0.407391 
-6.956125 21.326582 27.478800 0.344961 -0.844720 0.409206 
-7.168584 19.398705 40.577198 0.563202 -0.475828 -0.675568 
-4.869303 4.042469 42.127846 0.775130 0.187506 -0.603336 
4.807247 18.625063 14.463801 -0.598089 -0.797155 -0.082671 
-16.312801 -7.349891 12.474283 -0.895818 -0.444420 -0.000473 
-10.620469 -8.443287 32.517113 -0.288228 0.113008 -0.950870 
4.264274 -10.907526 53.620426 0.603520 -0.293033 -0.741549 
11.741029 -15.534250 38.606411 -0.956332 0.191311 -0.220975 
-3.667636 -13.150676 53.428898 -0.308195 0.046054 -0.950208 
-4.740015 -12.987648 53.991783 0.315496 -0.163512 0.934733 
-1.029504 -16.371157 12.458210 -0.100887 -0.875358 -0.472831 
5.129919 -8.531629 2.437863 -0.936770 -0.207947 0.281460 
-8.224025 2.037763 32.577408 -0.795253 -0.606074 0.015692 
7.414962 -13.299373 11.741708 0.550751 -0.671241 -0.496093 
0.593916 9.799073 0.000000 0.000000 0.000000 -1.000000 
7.290542 14.279158 13.259772 0.977419 0.179999 -0.110687 
12.568175 -3.267266 22.620138 0.826499 0.421634 -0.372993 
9.502628 -12.289629 25.786139 0.247926 0.950771 -0.185923 
11.935264 -10.405295 26.246265 0.752191 0.019340 0.658661 
-12.541436 -9.096512 0.417954 -0.735938 -0.282959 -0.615086 
1.993577 -18.184689 23.977781 -0.121392 0.943380 -0.308705 
-14.796016 -3.211629 2.802398 0.919531 -0.068382 0.387022 
-10.254053 19.857073 34.373821 -0.188820 0.398478 0.897531 
2.401968 22.591047 40.769711 0.337791 0.831443 0.441134 
3.934335 24.132259 35.578384 -0.384943 -0.757298 0.527559 
-5.156877 -15.930237 26.210571 0.479216 0.780710 -0.401053 
-1.395657 10.737788 45.252560 0.398845 0.207901 -0.893140 
-10.576188 17.598301 13.862389 -0.853465 0.518645 0.051040 
-12.198731 16.363365 27.760462 0.777513 -0.600521 0.186676 
8.606665 -2.394188 0.000000 0.000000 0.000000 1.000000 
1.040790 -0.548554 45.814449 -0.476820 -0.726316 -0.495083 
-2.953363 2.256927 0.000000 0.000000 0.000000 1.000000 
8.087296 0.676488 27.870060 -0.616876 -0.756519 -0.217127 
4.284682 -9.279468 5.196410 0.230811 -0.615408 -0.753658 
-11.790109 9.401119 34.965431 0.547166 0.774008 -0.318623 
-0.496401 23.614168 39.157127 -0.204202 0.882961 0.422708 
10.281258 11.631436 30.202185 0.990954 -0.131295 0.027780 
-2.794199 24.449461 33.806000 -0.467544 -0.508829 0.722839 
-12.515722 12.038651 24.608368 0.622634 0.689431 0.370150 
-4.497137 3.411488 41.932095 -0.382134 -0.329655 0.863308 
-10.452455 2.458259 24.468328 0.830306 -0.506173 -0.233195 
-12.638538 5.365170 16.006130 0.624896 -0.765695 -0.152372 
14.913993 -6.367422 20.455650 0.985079 0.170533 -0.023186 
8.044027 20.847441 30.480247 -0.787369 -0.556352 0.265562 
-6.265943 -12.284484 50.425858 -0.006596 0.795605 0.605780 
-2.881284 -18.251461 22.348501 0.294893 0.928979 -0.223688 
-2.841211 -1.335673 0.000000 0.000000 0.000000 1.000000 
-12.230952 9.534874 27.320297 -0.712936 -0.588508 -0.381287 
4.359568 -15.668791 29.670494 0.484411 -0.525327 -0.699555 
8.953856 -2.923034 0.000000 0.000000 0.000000 -1.000000 
3.132639 -18.072359 23.663139 0.235604 -0.912577 0.334206 
2.640165 22.176817 27.070995 -0.232497 -0.878440 0.417479 
-7.881348 -13.697688 11.382385 0.051265 0.691580 0.720478 
0.270007 -8.707790 3.418729 0.205510 -0.134866 0.969318 
-5.552010 -17.998735 31.231766 0.414712 0.571126 0.708399 
-11.267412 15.855647 14.133347 -0.975938 0.167898 -0.139124 
8.351749 -7.843102 48.960274 -0.987772 -0.038544 -0.151065 
-10.792027 -5.733852 29.544262 -0.781693 0.408186 0.471530 
-12.299910 15.396906 25.793091 0.962523 -0.179680 0.203135 
16.142490 3.032523 12.553074 0.862048 0.285323 0.418885 
-14.511974 3.014068 15.939331 -0.552234 0.418522 0.721025 
-2.993683 -11.701088 52.994518 -0.695768 0.005361 -0.718246 
-7.928454 -14.630685 24.475262 -0.669173 -0.658503 0.344356 
2.953439 -21.543686 32.991772 0.730662 0.483498 0.482040 
-8.660827 16.837276 40.252525 0.639852 -0.187418 -0.745295 
8.595394 13.525946 21.211040 -0.899928 -0.363535 0.240775 
-11.655710 -2.913693 23.396748 -0.887043 0.458454 -0.054539 
7.237882 -15.684455 31.014803 0.503260 -0.233874 -0.831885 
-14.552748 -3.240693 2.308716 0.896151 0.003249 0.443737 
-7.568676 19.290190 40.296535 -0.572580 0.537512 0.619059 
-8.799036 21.772923 32.269501 0.248826 -0.878357 0.408135 
-15.799603 -7.573370 7.323877 -0.900002 -0.337976 -0.275262 
4.455623 17.694881 6.510312 -0.684893 -0.661561 0.305382 
-3.676015 13.075544 0.000000 0.000000 0.000000 -1.000000 
7.179764 -5.101845 0.000000 0.000000 0.000000 -1.000000 
-14.655864 2.000736 16.537891 0.629411 -0.400515 -0.665905 
3.235414 5.473610 43.124142 0.431463 -0.429534 0.793310 
3.594608 -15.379301 11.413296 -0.236932 0.879801 0.412084 
-2.329911 0.991886 43.546898 -0.076497 0.859902 0.504695 
-2.366068 -16.240568 12.591866 -0.111034 -0.888009 -0.446219 
-12.948053 -14.601218 13.849302 0.196138 0.943586 0.266787 
9.178391 15.823794 25.764965 -0.906065 -0.334277 0.259432 
0.993831 -23.492832 34.952206 -0.311795 -0.770670 -0.555745 
11.869483 -8.487659 38.255943 0.984423 0.101901 -0.143276 
14.188481 -8.551181 8.248239 -0.635769 0.704557 0.315274 
-9.888506 -17.239452 18.502996 -0.044167 -0.894579 0.444723 
-9.240465 5.439576 37.647953 -0.686441 0.307030 0.659190 
3.421027 -5.946719 50.692757 0.221082 0.323975 0.919871 
3.707813 19.685625 12.605055 0.478588 0.738706 -0.474623 
5.262006 16.568552 43.224247 0.759651 0.062204 0.647350 
0.616083 0.380743 44.750526 -0.030648 -0.291977 -0.955934 
8.870679 15.453428 38.360031 -0.630861 0.768730 0.105203 
3.899728 -18.501701 31.176500 0.424924 0.903929 0.048499 
10.477795 -7.239446 34.035439 -0.879178 -0.276716 0.387911 
5.887607 1.168611 37.759274 0.800760 -0.255299 0.541854 
11.597281 -7.006345 0.000000 0.000000 0.000000 -1.000000 
-7.091156 -11.303881 0.000000 0.800551 -0.201301 -0.564444 
-13.061453 -13.905703 20.719221 -0.571440 -0.625929 0.530725 
7.043956 -1.698065 0.000000 0.000000 0.000000 -1.000000 
-0.538758 23.999346 29.960720 0.027378 0.963327 -0.266930 
6.335140 6.231131 0.000000 0.000000 0.000000 -1.000000 
-3.228156 -23.679449 36.300198 -0.176409 -0.979458 -0.097686 
12.813704 8.042034 3.785445 -0.815151 -0.535604 0.220587 
-8.977015 -12.799998 0.661464 -0.269614 -0.869607 0.413633 
11.257963 -11.413230 12.401530 -0.430782 0.118374 0.894659 
8.720893 11.678243 1.707438 -0.554238 -0.750927 0.359067 
-8.298738 -8.550568 48.649910 -0.900077 -0.128956 0.416210 
-2.686265 23.965111 30.132750 0.106483 -0.969865 0.219141 
-14.734750 5.873685 10.326375 -0.837498 0.540773 0.078496 
11.074406 6.386775 16.042419 -0.388121 -0.668354 -0.634559 
-2.275180 -18.426765 22.169640 -0.167219 -0.966784 0.193304 
-8.875793 -15.291177 12.189294 -0.329691 0.796603 0.506682 
3.063989 21.042376 25.055094 0.324440 0.814293 -0.481317 
-12.354486 14.387212 22.645344 -0.935531 0.297257 -0.190840 
7.086501 13.730247 10.718334 -0.979835 -0.082244 0.182097 
-6.721533 -16.302618 22.580009 -0.580916 -0.789463 0.198205 
10.783042 -3.971678 29.193102 -0.663635 -0.584795 -0.466480 
-8.729217 13.446522 1.073075 0.672954 -0.556232 0.487585 
-6.322089 -5.042308 48.800175 -0.151924 -0.987377 0.044791 
-5.314622 21.378092 24.674093 -0.005691 -0.969352 -0.245609 
-1.274246 -17.037928 27.005714 -0.034000 -0.929992 0.366003 
-3.868005 -10.548327 3.084655 0.913845 -0.382808 -0.135447 
-7.560318 21.498749 28.532255 -0.518916 0.841277 -0.151585 
4.365505 -13.906165 53.463390 0.001934 -0.404382 0.914588 
-15.328063 2.779336 5.629521 0.959924 -0.145772 0.239369 
1.369920 -5.411340 0.000000 0.000000 0.000000 -1.000000 
-1.611776 11.692149 0.000000 0.000000 0.000000 -1.000000 
-11.973757 15.521672 23.240915 0.983195 -0.079473 -0.164352 
3.906962 8.828442 0.000000 0.000000 0.000000 1.000000 
-9.842741 11.986238 12.547206 0.192944 -0.777761 -0.598214 
-6.182124 -20.378740 38.877804 0.519375 0.810769 -0.270006 
5.626979 -7.926387 52.280647 -0.286494 0.931075 0.225875 
-7.515249 -12.971124 1.021042 -0.110143 0.992914 -0.044617 
-6.576802 -17.463634 46.585629 -0.768591 -0.550206 0.326406 
9.376480 13.213530 25.304569 0.962164 -0.123354 -0.242951 
7.289950 13.587353 11.969956 0.897781 -0.418001 -0.138794 
-2.138261 -18.035364 49.112442 -0.087395 0.941492 -0.325507 
-15.637002 -8.966474 11.517603 -0.595077 0.145575 -0.790375 
11.719325 -9.917837 11.452336 0.370475 -0.927484 0.050213 
-11.398830 -17.308725 15.358642 0.758218 0.422915 0.496235 
-4.326105 0.312326 43.727322 -0.442577 0.837274 0.321090 
1.565161 0.330205 44.469048 0.251152 0.811490 0.527643 
-10.832239 -8.733602 42.841393 -0.912714 0.076404 0.401393 
8.268022 5.717006 0.000000 0.000000 0.000000 1.000000 
11.553899 -8.605987 35.882915 0.970208 -0.041608 0.238674 
7.829457 20.544493 29.430836 0.947182 -0.242254 -0.210143 
-3.030105 21.231554 7.002176 0.625235 -0.779529 0.037628 
-13.942041 -6.208129 17.104597 -0.853313 -0.095874 0.512508 
3.168319 -6.379974 51.031765 0.146145 -0.007819 -0.989232 
6.563737 -20.814785 39.789310 0.680356 -0.727370 -0.089718 
2.405617 10.439565 0.000000 0.000000 0.000000 1.000000 
3.722490 -20.440523 45.633102 0.445807 -0.802400 0.396749 
-4.348563 2.592624 41.708244 -0.412466 -0.640932 0.647362 
11.621965 -8.252485 41.596897 0.981628 0.153929 0.112752 
11.773698 -14.808970 15.222755 -0.585857 0.735768 0.339731 
11.224606 -10.233183 34.281986 -0.702816 -0.053251 0.709376 
-0.122039 -16.590715 28.556871 -0.498557 -0.725724 0.474094 
-0.567595 -14.693034 50.969837 0.196627 0.655686 -0.728981 
-16.595284 -4.449543 7.593441 0.946942 0.109637 0.302128 
7.601919 -9.910849 54.314674 0.457730 0.062123 0.886918 
-4.325440 24.109299 32.313950 -0.281603 0.923976 -0.258781 
-8.208161 9.584342 0.000000 0.000000 0.000000 1.000000 
-1.333833 24.024914 37.886898 0.248680 -0.954678 -0.163550 
3.496328 -12.415249 53.047729 0.706806 0.108254 -0.699076 
-9.637897 14.580925 5.632815 0.988094 -0.046997 0.146496 
6.790726 15.530720 14.010051 0.107115 0.973977 0.199739 
-8.734528 -12.918454 2.524912 0.134112 0.970072 -0.202422 
-8.184640 -16.486616 31.558502 -0.529349 -0.332373 -0.780588 
-7.848685 -8.128481 49.793461 -0.777872 0.579301 0.243566 
6.357964 -14.266937 28.127295 -0.689812 0.654136 -0.310266 
-2.759610 -9.312276 1.775424 -0.424839 0.898031 -0.114250 
-4.421318 -3.836572 0.000000 0.000000 0.000000 -1.000000 
8.993114 12.021154 36.709480 0.937769 -0.090443 0.335275 
-16.619530 -5.830012 13.354733 0.879296 0.368598 -0.301619 
0.407985 -16.869762 27.636570 0.122217 -0.947467 0.295584 
-14.323751 -9.891932 7.365600 -0.620522 -0.703443 -0.346584 
-7.986633 -12.181335 29.201565 0.658408 0.739048 0.142500 
-11.542866 9.358758 35.466297 -0.861360 -0.151857 0.484767 
-2.805600 -17.799860 16.743132 0.175908 0.892718 0.414862 
8.454734 6.788507 19.523413 -0.993575 0.090883 0.067445 
3.505003 -22.226116 33.718109 -0.423217 -0.859985 -0.285153 
3.938814 0.330701 43.326965 0.511374 0.848682 0.135038 
14.466984 3.449018 2.686347 0.868864 0.238596 -0.433760 
-3.384610 24.361523 33.361710 -0.054054 -0.951572 -0.302638 
-5.772496 19.914850 4.739174 0.211636 0.945625 -0.246989 
6.027185 -5.324276 49.231495 0.312150 0.495249 0.810735 
11.242739 -6.280644 38.613567 0.920719 0.384904 -0.064231 
6.315204 -9.096664 3.690644 -0.490765 -0.633466 0.598222 
11.620920 10.441299 8.289339 0.672530 0.737064 0.066641 
10.477995 -6.702252 0.000000 0.000000 0.000000 1.000000 
-15.651419 -3.748253 4.775681 -0.933584 0.044018 -0.355645 
11.454082 -2.782503 26.050940 0.704931 0.651356 0.280728 
-12.424867 -16.375439 15.033743 0.749829 0.648084 -0.133205 
7.137294 -6.031240 48.857708 0.579192 0.423495 0.696554 
-6.093734 12.911082 0.000000 -0.000025 0.000005 -1.000000 
6.478069 16.964224 21.112940 0.909574 0.371057 -0.187059 
-10.479784 1.316383 25.186306 0.868579 -0.289879 -0.401920 
-10.992154 -11.865764 3.656048 0.069397 0.646823 -0.759476 
10.159060 -18.566916 35.345348 -0.420860 0.751897 0.507473 
-9.637825 13.729610 6.171229 0.847951 -0.525279 -0.071144 
-16.926842 -3.399110 13.571177 0.903587 0.116166 -0.412353 
-0.655811 10.411857 45.369766 0.538024 0.842307 -0.032375 
7.970987 -13.733926 26.455141 0.783525 -0.419307 0.458553 
6.960602 -6.502694 49.325825 -0.640662 -0.475919 -0.602538 
10.738733 11.106169 8.213283 -0.552622 -0.817556 -0.161900 
5.870930 -4.879843 48.889149 0.409312 0.607869 0.680410 
-1.044080 -21.962252 43.669353 0.155999 0.944522 -0.289038 
8.434023 2.287609 26.817402 0.869071 -0.490643 -0.063120 
-11.505685 -7.656721 28.437492 0.798652 0.067016 -0.598050 
8.125420 19.887594 37.665039 -0.819800 -0.169525 -0.546983 
9.349316 -2.793113 40.907398 0.658532 0.750900 -0.049847 
3.037056 15.934372 1.671531 -0.084699 -0.622847 0.777745 
8.711771 3.556807 23.607141 -0.978028 -0.188339 0.089387 
-12.027350 -7.126863 36.373440 -0.917357 0.370612 -0.145269 
-7.090763 22.972292 32.622345 0.381785 -0.914918 0.131014 
8.352818 -12.118761 11.424217 -0.715473 0.519786 0.466820 
-10.171790 -14.630845 11.989876 -0.267630 -0.254271 -0.929366 
1.951763 7.479591 44.531410 0.301485 -0.296653 0.906148 
-6.964750 -13.960492 10.953892 -0.379973 -0.828316 -0.411719 
-12.111079 -12.771715 23.296331 -0.655035 -0.633350 0.412065 
-12.185538 9.072320 32.483940 0.930262 0.364240 -0.044073 
8.508203 -11.709247 51.339569 -0.733450 0.668218 0.124644 
2.068544 -20.652122 46.570045 -0.239392 0.847000 -0.474640 
-10.019176 -10.787314 31.506390 -0.244354 -0.947834 -0.204697 
10.208234 10.851027 2.659452 -0.750053 -0.610265 0.254947 
1.535541 13.300093 45.549740 0.265767 0.097935 0.959050 
3.300390 -18.329161 18.144825 -0.336642 0.862870 0.376999 
0.911051 -17.767162 15.456116 0.017565 -0.908485 -0.417549 
7.262229 14.587682 15.048283 0.061039 -0.841493 -0.536809 
6.794302 -13.072517 29.300112 0.570988 -0.603712 -0.556331 
-15.803802 2.758117 6.933198 0.949024 -0.251814 0.189588 
-14.162315 -13.778019 16.040031 -0.698411 -0.697699 -0.159495 
-9.593806 -18.089632 38.246971 -0.663240 -0.691959 0.285142 
10.187308 10.700682 29.379221 -0.993959 0.092988 0.058299 
4.716839 8.106292 0.000000 0.000000 0.000000 1.000000 
-10.198962 20.571644 32.844425 0.740908 -0.666148 -0.085451 
-0.311132 21.123730 19.117754 0.310028 0.950112 0.034212 
-5.647657 -12.973861 8.849346 0.278192 0.752732 0.596660 
-4.348098 -14.606663 52.907864 -0.501959 0.492878 -0.710710 
7.886901 -13.058537 27.553186 0.783248 -0.555876 0.278433 
6.099114 -14.208410 53.848850 -0.601637 -0.078424 -0.794910 
-0.727700 1.754900 42.617092 0.746843 0.241236 -0.619703 
5.223647 -15.231951 12.211405 -0.414143 0.726177 0.548775 
2.044494 -0.336243 0.000000 0.000000 0.000000 -1.000000 
-14.405321 1.200343 2.427946 0.925103 -0.098998 0.366583 
-13.881553 7.344450 7.750865 0.868001 -0.492489 0.063477 
3.285852 24.294224 34.887268 -0.202702 -0.975990 -0.079725 
5.695755 -8.763103 5.543593 -0.169027 -0.904795 -0.390865 
17.162004 -0.940827 8.579333 0.974395 -0.224664 0.008992 
9.333829 11.948094 3.614595 0.575752 0.777960 -0.251569 
1.964870 -8.501421 2.794804 0.073507 0.924024 -0.375201 
-14.115705 4.228621 2.961818 0.849500 -0.078089 0.521778 
-9.811867 -14.151740 43.573868 -0.901109 -0.260338 0.346738 
8.556179 -1.045568 28.818214 -0.545126 -0.526879 -0.652102 
10.045513 -7.187352 46.087101 -0.834742 -0.226140 -0.502062 
2.496681 20.509851 13.006020 -0.522498 0.790275 -0.320095 
11.083374 -14.716911 40.909946 0.841262 -0.283796 0.460151 
1.440644 6.511391 44.299873 0.409723 0.360599 -0.837912 
3.309296 -21.010815 32.851185 0.453330 -0.461753 -0.762414 
10.665082 11.296854 7.436059 0.552330 0.827502 0.100860 
1.145741 24.569889 34.497341 -0.114158 -0.993349 0.015057 
10.396522 14.477051 32.191868 -0.999305 0.037207 0.002085 
-4.824744 -20.480984 41.979805 -0.520975 -0.849723 0.080975 
-11.629903 11.768302 18.754576 -0.950957 -0.272846 -0.145723 
7.330728 -20.117874 40.165829 0.596258 -0.794335 0.116229 
-4.599494 -11.429253 3.153913 -0.637118 0.756700 -0.146582 
15.393421 5.465799 9.830578 -0.827898 -0.520852 0.208084 
-2.779014 -13.643805 8.621638 -0.207825 -0.805559 -0.554872 
10.215400 -2.710681 0.000000 0.000000 0.000000 1.000000 
11.125017 -12.460729 42.020393 0.934596 -0.069918 0.348772 
-9.736069 13.116879 9.378114 0.992280 0.023495 0.121773 
4.234752 -15.402017 28.968319 0.022725 0.523452 -0.851752 
-10.241892 19.960346 30.769056 0.641292 -0.679656 0.356106 
-8.554507 -13.420088 25.661802 -0.612817 -0.680900 0.401037 
11.555238 -9.410231 0.113361 -0.431172 -0.777604 -0.457627 
-11.833532 14.516626 17.281910 -0.558470 0.808692 -0.184740 
-0.568393 -12.988213 51.454758 -0.050178 0.120160 -0.991486 
-16.510983 -6.899877 12.253981 -0.943251 -0.318693 0.093344 
16.042786 3.702445 11.482183 -0.944283 -0.310314 -0.109705 
11.546885 -0.176449 20.735706 0.846513 0.468571 -0.252700 
-11.150587 1.892002 23.039743 -0.885477 0.377698 0.270691 
6.288237 -21.429140 41.465897 -0.219002 0.974154 -0.055333 
0.056039 9.951747 45.409676 -0.278538 -0.585168 0.761574 
-13.704246 6.201621 12.918227 0.430383 -0.793907 -0.429514 
7.323720 15.444592 19.443270 -0.488073 -0.869547 0.075313 
-4.394880 -19.326756 31.743626 -0.245109 -0.657266 -0.712687 
-1.463177 -10.382941 51.978100 0.686317 0.231957 -0.689322 
-14.401350 -9.271031 22.324547 0.597267 0.768663 -0.228973 
12.163554 -10.717196 38.171646 -0.957774 0.141039 -0.250552 
3.886190 8.295815 0.000000 0.000000 0.000000 -1.000000 
6.094137 0.651381 36.774750 0.591902 -0.641059 0.488565 
15.097669 3.114094 3.953227 0.889220 0.148203 -0.432809 
-6.626604 18.505146 3.334480 -0.774476 0.298854 -0.557560 
2.644008 -18.632368 19.546015 -0.270372 0.962559 -0.019495 
4.704351 -4.288373 48.986736 0.610892 0.772071 -0.175265 
3.170572 -23.058428 34.426434 0.347459 -0.808877 0.474331 
5.519876 14.150918 3.061847 0.523635 0.808775 -0.267749 
-0.016493 1.071413 43.374134 0.106056 -0.847152 -0.520658 
-10.679445 11.678586 6.544436 -0.671974 0.714991 0.192974 
-11.648814 -14.656070 39.085514 -0.785305 -0.471836 0.400832 
-12.362244 -11.537492 39.024395 -0.939373 -0.083290 0.332626 
10.624113 9.520446 1.258154 -0.564488 -0.774571 0.285293 
1.778165 23.582987 29.616972 0.178788 0.915805 -0.359634 
12.702325 9.393938 8.671619 -0.751076 -0.659727 -0.025405 
10.973178 9.293070 1.518450 -0.720462 -0.676889 0.150852 
-0.629470 7.095664 44.507038 0.063734 -0.425292 0.902809 
11.677609 -8.239892 37.022713 -0.945487 -0.266333 0.187406 
-3.170980 -15.926683 28.950136 -0.416404 -0.640014 -0.645747 
-14.495440 2.836617 3.300679 0.935619 -0.148829 0.320104 
13.908261 -1.109089 18.078312 0.559029 0.017940 0.828954 
-8.216648 2.424439 35.618530 -0.771471 -0.613146 0.169953 
12.047695 6.768318 0.655748 -0.617961 -0.474100 0.627179 
-10.230801 13.766655 10.095900 -0.580005 -0.788317 -0.205307 
11.563906 1.544721 0.000000 0.000000 0.000000 1.000000 
-7.858870 -8.200024 50.488865 -0.648771 0.748836 0.135427 
6.401599 -11.740508 8.843549 -0.542216 0.599613 0.588614 
-11.911175 -15.662498 19.668459 -0.397297 -0.711009 0.580191 
-1.779773 -5.804057 0.000000 0.000000 0.000000 1.000000 
-5.368974 15.918599 43.571430 -0.683441 0.484633 0.545929 
3.192630 -17.316595 49.285774 -0.473745 0.345574 -0.810027 
-9.092199 4.506763 25.584906 -0.547590 -0.815428 -0.187674 
-14.089818 -13.495337 15.567754 0.978855 0.198957 -0.047530 
1.347638 8.007056 0.000000 0.000000 0.000000 -1.000000 
4.962379 16.326241 5.554987 -0.429984 -0.883776 -0.184539 
1.090117 16.223200 45.271812 0.039647 0.437384 0.898400 
-12.695546 -4.369070 23.733835 0.811181 -0.578725 -0.084036 
9.877775 -14.496705 43.854321 -0.863348 0.310438 -0.397818 
-9.998372 18.207003 17.097786 0.679805 -0.727660 -0.091516 
-7.160188 16.109785 1.390690 -0.576939 0.414542 -0.703773 
8.033511 -11.703850 53.951180 0.608629 -0.186975 0.771110 
1.520787 -19.862486 31.218994 0.154738 -0.467359 -0.870421 
13.867211 -10.937717 21.696480 0.826073 -0.473661 0.305366 
-3.070643 13.532937 45.088520 0.018333 0.055146 -0.998310 
-9.336428 20.102009 28.385101 0.704773 -0.707363 0.054150 
9.231306 12.091867 4.102116 0.614895 0.769985 -0.170376 
0.704431 -14.397106 9.214011 0.010195 -0.792373 -0.609951 
1.195527 19.279150 4.116644 0.442879 0.746850 -0.496058 
15.990192 -0.364908 4.807639 -0.930048 -0.130216 0.343590 
-7.295725 -10.123184 0.000000 0.000000 0.000000 1.000000 
-3.262815 1.831539 42.258961 -0.613259 -0.777608 0.138707 
-7.646063 21.207283 37.938740 0.457250 -0.647830 -0.609294 
-4.562722 23.571957 30.389305 0.353783 -0.909123 0.219846 
-1.309778 -0.649450 46.129318 -0.381087 -0.827392 -0.412548 
11.856356 -15.634260 36.631992 0.983320 -0.161418 -0.083823 
14.317756 2.177814 1.780095 -0.771248 -0.271717 0.575627 
-8.524118 2.469367 33.884632 0.815317 0.417739 -0.400939 
-7.790098 -17.754236 43.696377 -0.713100 -0.548747 0.436309 
-1.772382 -0.563474 45.998657 -0.698747 0.385630 0.602530 
9.849427 -13.044290 12.992918 0.051145 0.498690 0.865270 
-9.729102 12.470390 39.721729 0.826216 0.000944 -0.563353 
-10.917138 12.753910 14.316863 -0.908306 -0.353725 -0.223292 
7.192624 -10.135067 54.512596 -0.138504 -0.228286 -0.963692 
-7.682924 13.133548 0.068838 0.127389 -0.031850 0.991341 
3.090337 -21.605003 41.510906 0.543457 0.272280 0.794052 
-9.306743 4.083864 35.925900 -0.881473 -0.126838 0.454881 
14.330329 4.547452 3.154536 -0.835341 -0.345255 0.427791 
-11.580340 7.323298 29.236006 0.944498 0.328516 0.000761 
-12.125233 14.154746 19.286398 0.989163 -0.021400 -0.145257 
4.512278 -17.534164 16.759703 -0.211729 0.951720 0.222259 
-2.109459 -5.070757 50.338772 -0.114701 0.795613 -0.594848 
5.446224 0.836704 39.074291 0.537416 0.836098 -0.110115 
-5.668544 -17.502338 30.985962 -0.303465 -0.416123 -0.857176 
-8.876772 10.004390 40.608135 -0.755566 -0.138899 0.640178 
3.145544 17.663458 3.849324 -0.479993 -0.720643 0.500281 
16.299406 -4.124287 6.720101 -0.847616 0.013673 0.530434 
4.468074 9.619446 43.627140 0.762551 -0.218551 0.608894 
13.476512 7.885955 5.792717 0.819441 0.532994 -0.210794 
12.049268 -14.086194 36.710888 0.996975 -0.046577 -0.062215 
13.841192 1.978299 0.947099 -0.414331 -0.192879 0.889454 
-11.056402 15.019341 12.396612 0.983048 0.145501 0.111561 
3.943550 22.351498 28.398199 0.408450 0.806272 -0.427895 
-8.566818 -1.111451 38.012730 -0.772729 0.634733 0.002028 
-12.056614 14.716233 19.268568 0.987711 -0.118056 0.102420 
7.338888 -18.436455 44.005932 -0.717550 0.651877 -0.245312 
9.874761 13.262353 28.344818 0.978891 -0.177715 0.100946 
-7.545338 17.133236 41.243393 0.532275 -0.225128 -0.816088 
-6.779811 20.587893 16.861895 -0.396101 0.918038 0.017627 
7.575626 12.599701 12.563390 0.989912 0.099064 -0.101297 
9.578636 -6.636456 32.384518 0.960828 0.235124 -0.146716 
-7.345210 -14.705535 30.381807 -0.300665 -0.042772 -0.952770 
9.366513 -3.248666 0.000000 0.000000 0.000000 -1.000000 
7.612251 13.070647 13.202235 -0.738796 -0.671639 -0.055517 
9.838577 15.035089 30.078560 -0.107957 0.959146 0.261505 
-3.955636 -14.450887 9.998491 0.205202 0.783477 0.586563 
3.086516 18.498426 5.108110 -0.464972 -0.818222 0.338104 
1.178515 -9.546110 4.553917 -0.589510 0.799531 0.115014 
0.373789 -18.966761 48.838024 -0.316444 0.735162 -0.599499 
6.045291 18.626310 23.700371 -0.631412 -0.732338 0.254949 
2.841856 5.830456 43.499935 -0.422813 0.272470 -0.864285 
-3.592763 -13.501319 8.694635 0.251098 0.106967 0.962033 
-6.276756 -15.327150 12.984793 0.055152 0.874777 0.481377 
12.051652 -4.140965 27.318401 0.848665 0.349651 0.396878 
0.658587 2.264491 0.000000 0.000000 0.000000 1.000000 
-9.161140 8.602216 39.740265 -0.723523 -0.656759 0.212559 
-10.297319 -15.125635 32.617783 0.693304 0.285103 0.661850 
14.668674 -5.910311 5.288198 0.776101 -0.567532 -0.274908 
10.620393 -9.136320 5.333131 0.283187 0.466761 -0.837818 
16.598494 -0.344415 13.695238 -0.813601 -0.029062 0.580697 
11.901319 5.966791 15.859341 0.554844 0.601312 0.574954 
-15.232770 -9.104559 12.767444 -0.673036 -0.659921 0.333955 
14.136014 7.602036 9.756673 0.817087 0.562456 0.126543 
-3.346433 24.220619 34.682507 -0.075353 0.982532 -0.170153 
-13.154202 -14.793157 14.342272 0.671151 0.591053 0.447451 
-11.952208 -14.881341 37.958282 0.947445 0.286189 -0.142983 
-2.026303 19.101021 2.379788 0.278201 -0.933622 0.225730 
1.145103 -13.972337 8.799850 0.034569 -0.797101 -0.602856 
-10.276348 -8.775889 29.825300 -0.873134 -0.104244 0.476204 
-10.907417 -11.904699 11.425400 -0.753100 0.026902 -0.657356 
-14.024811 -9.304003 23.307571 -0.954670 -0.083316 0.285769 
-12.261213 -11.725426 9.422441 0.247013 0.967205 0.059153 
10.044143 -7.785325 0.000000 0.000000 0.000000 -1.000000 
-5.163602 -19.640610 45.265999 -0.716824 -0.678656 0.159969 
8.597515 -9.163325 6.136766 0.258291 0.938796 0.227919 
2.529927 -21.807236 41.693535 0.392316 -0.892515 0.222495 
-2.393445 9.633011 0.000000 0.000000 0.000000 1.000000 
5.413769 -14.602995 29.487778 -0.616915 0.391939 0.682495 
4.946264 -14.881923 28.997532 0.492649 -0.774641 -0.396520 
10.030256 -10.964009 27.966461 0.552326 -0.801104 0.230583 
10.132181 4.541609 0.000000 0.000000 0.000000 -1.000000 
-13.943093 -14.121255 15.730021 -0.879609 -0.469230 -0.078170 
0.611908 -24.293545 37.295288 -0.132093 -0.964558 -0.228430 
-8.620006 -18.547813 33.231144 -0.611516 -0.566367 -0.552519 
-11.059740 16.938980 36.128849 0.952175 -0.204720 -0.226831 
-14.889174 4.357231 5.600034 0.917015 -0.319885 0.238238 
-12.213256 2.940525 18.182838 0.982031 -0.072094 0.174404 
-4.645916 -18.851713 31.527231 -0.228553 -0.556435 -0.798839 
11.891136 -9.670923 36.546215 0.954309 0.214431 -0.208119 
-6.220720 -16.236080 47.967102 -0.428541 -0.288419 0.856252 
7.204152 12.829927 8.586991 -0.738605 0.633781 0.229748 
2.734481 -17.179564 14.571988 -0.499716 0.656956 0.564529 
-12.935721 -4.857651 24.342951 -0.768806 0.620739 0.153690 
0.652346 17.473173 1.376494 0.560318 0.292269 -0.774998 
1.288972 11.820786 0.000000 0.000000 0.000000 -1.000000 
-13.025297 13.176620 28.878069 0.977414 0.203347 -0.057558 
7.042448 -19.444328 41.901287 0.894900 -0.284431 0.343879 
12.139478 -12.257873 37.268864 0.972059 -0.095240 0.214548 
-0.411665 -16.919979 13.461990 0.067392 -0.919935 -0.386235 
16.385998 -0.806885 5.759612 0.914962 -0.010885 -0.403393 
7.570543 -16.549053 21.807909 -0.497616 0.824425 -0.269635 
-14.526974 -6.108706 16.668127 0.684963 0.382349 -0.620189 
-13.906425 -6.043792 20.013813 0.830244 -0.541712 0.131314 
10.040024 -11.782556 45.130306 -0.874069 0.222753 -0.431722 
-0.220163 5.079026 0.000000 0.000000 0.000000 -1.000000 
11.131305 -13.698523 33.962681 -0.859127 0.058092 0.508454 
-8.469861 -12.686889 47.170437 -0.784324 -0.242675 0.570916 
15.833405 -3.891656 14.884089 0.890991 -0.231988 0.390279 
-15.719516 -6.998550 14.579001 -0.868998 -0.351115 0.348655 
1.551539 16.645449 1.123755 -0.139543 -0.827541 0.543786 
-16.952988 -1.338245 13.127265 0.967778 -0.103235 -0.229671 
16.531630 0.217445 13.719167 -0.945569 -0.281411 -0.163425 
4.452257 7.682722 0.000000 0.000000 0.000000 -1.000000 
8.965630 -15.604663 44.796459 -0.786661 0.437813 -0.435298 
-11.323401 6.943900 33.139637 0.931236 0.349504 -0.103181 
-0.671377 7.023866 0.000000 0.000000 0.000000 -1.000000 
-14.305701 -7.855900 4.628598 -0.703918 -0.513690 -0.490533 
9.075848 -6.012901 46.901699 -0.662075 -0.524754 -0.535060 
-8.461320 -17.469971 18.013529 -0.284742 0.852373 -0.438613 
-7.412533 14.036981 42.424274 0.743841 -0.161663 -0.648510 
16.365072 0.471519 5.872542 -0.926263 0.058554 0.372301 
-12.336268 -10.182308 39.013306 -0.970866 0.104885 0.215449 
-13.316341 -3.842769 0.417600 -0.772630 -0.136214 -0.620071 
10.698638 6.272675 16.425133 0.470381 0.579878 0.665194 
9.755281 10.043809 25.460541 0.992140 -0.016884 -0.123986 
-6.660615 16.250763 1.114256 -0.491090 0.557197 -0.669599 
-8.028709 -9.981850 49.277672 0.942116 0.335264 0.003906 
7.693129 14.651895 18.718073 0.678828 0.718633 -0.150859 
7.559605 -16.510279 31.535307 -0.363643 0.449738 0.815781 
8.852091 12.658081 38.096676 -0.961904 0.231316 -0.145718 
-9.553316 -16.750149 13.326974 -0.959076 0.025384 -0.282008 
1.260291 -3.750767 49.432533 -0.155963 -0.665245 -0.730154 
11.283045 -17.121559 35.910461 -0.871293 0.343797 0.350218 
-15.298924 -8.669621 7.417332 0.863224 0.382296 0.329689 
-2.980752 16.419796 44.606625 -0.304929 0.158407 0.939109 
6.778424 0.409172 34.049316 -0.913796 0.388403 -0.118825 
11.198891 -14.793547 19.307056 0.312024 -0.791737 0.525160 
-10.946966 5.216586 19.127502 -0.908009 0.381585 0.172952 
5.800763 22.636654 30.774462 0.342711 0.854786 -0.389731 
-3.066416 -8.207014 51.712811 0.128868 -0.337439 -0.932485 
-10.866099 1.648590 24.127296 -0.909350 0.212392 0.357732 
-4.325994 -0.890638 45.733997 0.439688 -0.780962 -0.443592 
8.220026 -1.759871 36.571133 0.678558 0.717210 -0.158645 
-16.905525 -4.414110 8.781223 -0.967705 -0.163726 -0.191682 
-4.446542 -20.875633 41.133659 -0.673535 -0.698108 0.242889 
-1.643954 -3.532755 0.000000 0.000000 0.000000 -1.000000 
-8.652541 -3.200935 31.717554 0.966770 -0.246964 -0.066070 
9.892582 2.387516 21.528111 0.061060 0.863004 -0.501494 
10.007032 -8.859490 0.000000 -0.128412 -0.026129 -0.991377 
-9.938673 18.094410 19.167807 -0.724731 0.688576 0.025057 
-8.462336 -12.565756 10.108145 -0.536246 -0.672030 -0.510701 
8.446743 -19.219181 40.248653 -0.573677 0.760272 -0.304764 
-0.247305 20.218458 4.977691 -0.266550 -0.892017 0.365043 
-10.232151 -15.839714 19.965500 0.652689 0.350961 0.671434 
-6.286433 -15.627271 25.337151 -0.464284 -0.826232 0.319030 
2.962453 -1.185893 46.133213 0.211529 0.779798 0.589212 
-5.407833 -16.797482 23.776865 0.429157 0.817811 -0.383419 
5.219771 -19.750957 45.088390 -0.605369 0.683937 -0.407135 
7.302883 -12.676979 29.016798 -0.806419 0.491470 -0.328854 
6.593405 23.042564 34.597046 -0.649364 -0.758740 -0.051379 
-5.532216 -10.202625 5.873501 -0.228206 0.910616 -0.344529 
2.764660 -18.208944 30.515091 -0.298159 0.472934 0.829117 
0.527777 -23.236771 40.786999 0.084979 -0.816693 0.570781 
-14.310952 5.079547 4.199441 0.983379 0.081578 0.162204 
-3.160018 7.858778 0.000000 0.000000 0.000000 -1.000000 
-10.322398 -16.227457 12.831927 0.639362 0.558698 0.528273 
7.993761 2.850502 33.384262 -0.776903 0.574927 -0.256673 
-13.102600 1.424073 18.319311 -0.552251 0.338277 0.761963 
-10.324987 -5.515364 33.350517 0.940418 -0.158537 0.300798 
6.163985 -13.323895 10.380883 -0.601929 0.699960 0.384365 
-12.652190 -12.328385 13.088864 0.978517 -0.204758 -0.024060 
-1.010559 22.955976 40.299839 0.320707 -0.782701 -0.533410 
-10.778965 10.813875 9.857438 0.725167 -0.654821 -0.212940 
-11.934970 -12.202515 24.301626 -0.529947 -0.745837 0.403587 
6.089887 -15.092645 12.875916 0.505806 -0.776433 -0.375916 
8.049451 -16.277958 18.714926 0.574275 -0.798730 -0.179552 
2.049624 -17.621580 25.451906 0.122028 -0.942533 0.311033 
-10.079501 -9.657407 29.442122 -0.792590 -0.369387 0.485133 
9.370821 13.555935 24.835369 -0.755324 -0.602754 0.257242 
-14.698843 -4.961428 3.142921 -0.881739 -0.229231 -0.412298 
-13.541012 2.266305 0.980695 -0.858241 0.224664 -0.461464 
-9.935731 10.959821 11.584114 -0.889295 0.421454 -0.177568 
5.531949 20.306005 41.527199 0.658802 0.440318 0.610000 
6.873321 -0.466358 37.403221 -0.632964 -0.769673 0.083423 
-10.294084 17.822132 10.902200 0.538016 0.639578 0.549071 
8.669477 20.205221 36.276024 -0.893227 -0.273506 -0.356846 
-3.376965 -18.260994 19.677032 -0.281927 -0.958804 -0.034824 
1.729884 -23.872168 35.441372 0.028374 0.848206 0.528907 
-11.844613 -11.472669 0.810677 0.117811 0.927107 0.355800 
-9.174979 3.371520 34.257141 -0.842110 -0.536143 0.058318 
7.488155 -16.742052 20.948536 0.560114 -0.825848 0.065165 
11.254812 -15.069242 18.835268 -0.158650 0.857242 -0.489865 
-2.976483 -12.971584 7.799344 -0.046861 -0.851879 -0.521637 
8.842947 10.496398 36.058754 0.988658 -0.118683 0.092036 
14.522166 6.782150 7.684442 0.874189 0.471552 -0.115895 
-5.317796 -18.927689 46.230942 0.593355 0.579771 -0.558387 
4.766963 -1.076176 0.000000 0.000000 0.000000 -1.000000 
-13.080871 13.777433 29.129366 -0.909144 0.123777 -0.397665 
-9.797216 -10.591310 45.344460 -0.938417 0.012047 0.345295 
5.821068 21.442451 40.238838 -0.567530 -0.555864 -0.607392 
7.374312 -16.248833 23.270290 -0.655142 0.704671 -0.272446 
-8.027863 -13.714240 30.292496 0.623167 0.380480 0.683299 
-11.936829 13.039014 18.351709 0.654430 0.741236 0.149303 
-9.678581 -13.404716 44.452377 0.907289 0.199792 -0.370014 
-10.242993 12.266207 6.551833 -0.898355 0.295846 0.324706 
5.936965 -16.616108 24.665489 -0.454255 0.808845 -0.373394 
-10.736273 5.908530 31.210718 -0.806853 -0.331617 0.488895 
-9.450708 -8.173376 46.206123 -0.921002 0.070858 0.383060 
4.808775 -13.879601 53.858089 0.362863 0.566212 -0.740091 
-8.837959 -14.563069 22.246763 -0.725846 -0.592523 0.349377 
-13.539371 -7.180715 24.689592 -0.935760 0.100930 0.337885 
-6.347040 -10.708356 6.670637 -0.274995 -0.746576 -0.605807 
2.963321 -20.498055 46.182415 -0.367837 0.812966 -0.451422 
15.151656 1.128891 16.056244 -0.040791 0.145048 0.988583 
-0.028003 9.170729 0.000000 0.000000 0.000000 -1.000000 
12.398835 -12.275585 22.472082 0.587741 -0.707303 0.392789 
-13.712762 -13.136859 14.509932 0.882896 0.159334 0.441711 
-8.201474 12.270586 0.018666 0.765340 -0.026285 -0.643090 
9.442835 5.972817 17.383003 -0.257323 -0.644570 -0.719940 
-9.350425 -17.759714 16.062130 0.298312 -0.921423 0.248977 
10.961164 -9.135976 34.067493 -0.884868 -0.213794 0.413886 
2.534600 23.678782 30.232529 -0.261800 -0.922715 0.282945 
16.918407 1.252837 10.721466 0.982245 0.177497 0.060738 
7.736349 14.398393 17.589642 0.530549 0.836621 -0.136318 
11.298743 -9.757585 7.795784 -0.244132 0.937465 0.248112 
2.720045 -7.242455 51.403881 -0.131700 -0.243266 -0.960977 
3.040786 17.609056 44.423550 0.354768 0.246832 0.901784 
4.951975 -14.657928 11.076269 0.763396 -0.603126 -0.231227 
-11.889688 8.229928 28.908148 -0.951529 -0.305678 0.033954 
1.864924 23.978928 37.787300 0.070938 0.961633 0.265008 
-9.988343 2.293760 0.000000 0.000000 0.000000 1.000000 
1.039136 -13.670178 8.315408 -0.165915 0.765065 0.622212 
6.622707 -2.203084 45.356571 -0.421927 -0.701232 -0.574674 
7.364688 -13.580269 27.711168 -0.665752 -0.325129 -0.671614 
-5.238377 19.376953 3.495819 0.291527 -0.783471 0.548804 
-6.119779 19.953047 5.092876 0.130944 -0.919609 0.370370 
-3.686285 21.799591 13.526061 -0.063666 0.996750 0.049347 
-6.263386 -15.931450 30.386311 -0.137436 -0.326682 -0.935089 
-13.991426 -10.084676 22.864384 0.919293 0.205869 -0.335437 
7.503421 14.739293 41.621460 -0.728805 0.072587 -0.680863 
9.876008 -15.857289 15.952843 -0.149844 0.984072 0.095652 
-15.088335 2.323812 15.599212 -0.656122 0.753465 -0.042355 
-4.503678 -10.766411 4.075910 0.476926 -0.716007 0.509780 
14.552606 6.241401 12.189627 -0.795848 -0.547734 -0.258096 
1.094283 12.014541 45.605068 0.357033 -0.442841 0.822447 
-11.918927 8.356139 30.101362 -0.923600 -0.382791 -0.020815 
-12.832342 12.936407 26.334700 0.977526 0.142211 0.155623 
-11.343611 -0.885321 24.532427 -0.949379 0.186909 0.252475 
-12.774548 13.241518 32.510414 0.852717 -0.146631 -0.501372 
11.313689 6.096369 0.000000 -0.244629 0.019311 -0.969424 
15.962999 -3.121728 5.392778 -0.798214 0.602287 0.010208 
-1.092354 -10.372666 5.082531 0.043846 0.705424 0.707428 
-14.948598 -8.307886 6.155014 0.466536 0.026657 -0.884100 
10.272617 11.591135 31.175629 -0.990525 0.106443 -0.086782 
0.153866 -13.331808 7.866607 0.099269 0.794257 0.599418 
11.480327 -2.161815 0.000000 0.000000 0.000000 -1.000000 
10.117356 15.932399 35.561661 -0.949846 -0.014696 -0.312374 
-9.963880 17.121132 8.096193 -0.942539 0.233586 -0.238868 
-4.856221 -20.857105 40.047424 -0.309967 -0.945285 -0.101770 
7.619632 13.751071 14.466645 -0.957267 -0.231253 0.173674 
-8.818263 -3.376609 32.580708 0.777823 -0.449631 0.439116 
-6.731602 -12.147216 54.127712 0.049967 0.042615 -0.997841 
11.945824 0.831680 0.000000 0.000000 0.000000 1.000000 
-11.454772 -6.549270 40.173550 -0.934054 0.118397 0.336934 
-8.835033 -2.807567 33.282394 0.348360 -0.915928 -0.199303 
-6.529375 -16.563667 47.379688 -0.655343 -0.482362 0.581251 
-3.936999 0.882574 43.104782 -0.450108 0.807785 0.380639 
11.431099 2.864075 18.626345 -0.480555 -0.577300 -0.660146 
4.067807 -0.242209 0.000000 0.000000 0.000000 -1.000000 
9.232482 -11.402968 46.923458 -0.861377 0.156672 -0.483201 
-10.328284 17.980112 15.652234 0.724005 -0.689775 0.005265 
6.720894 -15.962425 24.905256 0.488740 -0.055826 -0.870641 
14.749630 -7.293684 7.141784 0.726021 -0.586275 -0.359409 
-6.331652 2.412243 39.456524 -0.906596 -0.272318 0.322378 
8.637125 2.826499 24.528404 -0.220242 0.915806 0.335848 
5.620683 17.779306 12.778074 -0.801596 -0.596555 0.039585 
-8.532260 13.254538 41.372055 0.709680 0.067299 -0.701302 
0.949966 24.342632 36.384136 -0.042389 0.989007 0.141662 
11.905459 -12.166180 39.796581 -0.153178 0.133708 -0.979111 
2.025107 -18.441572 22.998770 -0.114821 0.936788 -0.330522 
5.674121 1.169142 0.000000 0.000000 0.000000 1.000000 
-2.549355 21.728281 9.602320 0.009207 0.984078 -0.177498 
7.479950 -20.406418 34.946056 -0.229722 0.890561 0.392592 
9.154392 13.247024 23.892050 -0.878292 -0.063743 0.473856 
-14.448921 4.113245 3.967746 -0.897023 0.232785 -0.375713 
-11.746770 15.919265 21.973057 0.861103 -0.507235 -0.034852 
-9.625230 -7.186746 45.440918 0.831780 -0.105854 -0.544919 
-9.572289 18.294920 8.595146 -0.928261 0.352600 -0.118341 
14.435357 -8.302443 12.420334 -0.777268 0.622997 -0.087918 
-5.807322 15.615096 0.203250 -0.344460 0.414306 -0.842435 
4.090890 19.313505 12.606238 0.713189 0.556333 -0.426445 
7.470784 -8.740586 5.060080 -0.260043 -0.960075 0.103114 
12.923669 -3.866277 19.291979 -0.764794 -0.621565 0.169551 
-12.913998 15.389113 30.260450 -0.989851 0.110685 0.089129 
9.038825 10.409637 21.007048 -0.892137 -0.450960 -0.026946 
-9.108001 4.034008 36.646343 -0.877167 -0.330176 0.348657 
8.952576 8.013246 33.886044 -0.851730 0.351990 -0.388149 
11.207954 -9.596716 28.398783 0.518234 -0.792586 -0.321313 
-2.780306 -20.699036 45.781681 0.392899 0.836978 -0.380918 
-8.898965 17.535784 39.785175 0.762440 -0.406032 -0.503809 
-0.284222 21.612217 12.624962 -0.227941 -0.973104 -0.033351 
-14.260722 4.656846 14.482327 -0.756855 0.557182 0.341640 
-2.680855 -12.661434 52.531227 -0.297620 -0.215170 0.930121 
-11.580771 -2.171830 23.488396 -0.991993 0.030650 0.122517 
-13.328091 3.335157 17.031439 -0.608972 0.477582 0.633300 
-12.452213 0.352605 0.000000 -0.277869 0.047391 0.959449 
-4.693044 -1.596792 46.478809 -0.136972 0.796827 0.588477 
-8.388944 19.362837 20.631447 -0.497297 0.853959 0.153133 
-12.120399 -11.842238 39.636444 -0.960164 -0.074149 0.269420 
-14.772029 -8.554087 20.523100 0.955120 0.139280 -0.261431 
9.517699 1.171890 24.629288 -0.747562 -0.513174 -0.421668 
-3.292044 22.866587 39.672096 -0.999345 -0.021745 -0.028911 
9.273897 -9.552727 49.445942 -0.924516 0.136414 0.355896 
-10.853627 -6.551744 42.009022 -0.893370 0.322087 0.313289 
-10.333714 6.304033 35.366302 -0.670569 -0.594868 0.443248 
-9.357599 19.287012 12.397681 -0.412661 0.900457 0.137434 
16.165686 0.558637 5.390038 0.913401 0.095359 -0.395733 
5.214448 9.847530 42.656166 -0.748780 -0.133243 -0.649288 
-15.999705 -7.486929 7.826342 0.933370 0.311529 0.178241 
-14.235887 6.690643 9.907127 -0.770107 0.604035 0.205126 
8.539598 7.411297 20.008533 0.978408 -0.170133 -0.117359 
-4.598308 -5.705839 0.000000 0.000000 0.000000 1.000000 
-7.340906 0.720455 34.112656 0.983663 -0.178694 -0.021815 
7.985939 10.972996 14.824393 0.792595 0.101806 -0.601190 
0.600338 -1.366925 0.000000 0.000000 0.000000 -1.000000 
8.753393 -15.791369 17.547613 -0.582319 -0.662160 0.471645 
-6.117290 -14.859520 29.753115 0.240005 0.565164 0.789295 
-0.530044 14.194738 45.672611 -0.233959 0.316330 0.919347 
1.458972 -4.067835 0.000000 0.000000 0.000000 -1.000000 
-8.101879 -18.924587 39.093140 0.699003 0.686194 -0.201326 
13.591987 -8.194071 13.992832 0.609186 -0.774073 0.172350 
5.088949 4.817725 0.000000 0.000000 0.000000 1.000000 
-10.220151 -5.514184 30.409239 -0.775728 0.077405 0.626302 
12.235859 -9.995743 1.607872 -0.206928 0.945974 0.249626 
-6.571046 -15.200969 30.221235 0.430968 0.630879 0.645181 
9.066153 -17.130817 42.314884 0.600078 -0.248896 0.760235 
1.672945 17.917730 44.604336 0.251621 0.394292 0.883867 
5.293939 -17.294212 23.774263 -0.481969 0.861460 -0.159976 
5.920537 -11.888750 54.745686 0.789330 -0.262567 -0.554992 
3.205258 3.788960 0.000000 0.000000 0.000000 1.000000 
-8.677412 19.063059 7.426482 0.727198 -0.670912 0.145120 
6.352468 -12.855876 54.560284 0.116188 -0.294308 0.948622 
3.204435 11.529273 44.952553 -0.580676 0.118434 -0.805474 
-6.616997 -19.117996 32.413944 -0.071820 -0.609020 0.789896 
8.781867 -11.645905 11.349761 -0.540866 0.664470 0.515697 
6.289075 -20.296053 33.898022 -0.392725 0.631673 0.668398 
-8.526109 -5.134220 0.000000 0.000000 0.000000 1.000000 
6.005033 12.316087 42.571945 -0.476717 0.147497 -0.866594 
-11.291685 -12.171725 25.105503 -0.626977 -0.508492 0.590200 
-4.829176 -1.026464 45.603638 0.301077 -0.775657 -0.554715 
-10.040290 -11.874202 31.525536 0.677971 0.009133 0.735032 
-12.546817 6.767190 14.350185 -0.743466 0.564812 0.358116 
9.153706 18.895834 36.455204 0.794649 0.462885 0.392773 
-10.050001 20.709618 33.330864 -0.705153 0.686576 0.177124 
-5.271863 -15.755651 13.042331 -0.377867 -0.874587 -0.303833 
-12.689346 13.688966 32.844982 0.008509 0.552578 -0.833418 
2.438691 -22.371719 40.138981 0.452596 -0.681966 0.574525 
1.295876 2.269017 42.246597 -0.241663 -0.601165 -0.761709 
8.989974 19.671837 32.408150 -0.375310 0.892630 0.249710 
-7.858002 -0.515574 39.377300 -0.517463 0.809266 0.278067 
-4.376551 8.754764 43.914639 0.350844 0.220366 -0.910136 
-1.754063 20.396362 4.699748 -0.219797 0.615391 -0.756957 
11.543583 -13.706122 34.765339 0.933225 -0.059343 -0.354359 
14.003221 -10.066586 22.685095 -0.834464 0.467745 -0.291348 
-1.389718 -18.106495 29.972773 0.099389 0.559132 0.823100 
9.980466 10.000101 12.137988 -0.723474 0.171666 0.668668 
-7.841797 0.554675 30.650585 0.894194 -0.181166 -0.409384 
-2.949017 22.057766 26.002415 0.108667 -0.935661 0.335752 
-2.803578 -17.489700 24.990107 -0.670547 -0.738565 -0.069916 
-12.247525 8.958592 10.692218 -0.648706 0.522585 -0.553250 
-7.634455 -12.367324 9.192905 0.603085 0.582519 -0.544941 
4.013821 -13.515004 9.168123 0.345297 -0.734334 -0.584400 
-10.854817 4.919019 20.013826 -0.896402 0.407077 0.175361 
3.066761 7.105101 0.000000 0.000000 0.000000 1.000000 
-11.227949 16.754040 20.596321 -0.808911 0.587335 -0.026473 
5.156968 -4.754547 49.148964 -0.398364 -0.600476 -0.693350 
0.937485 5.458072 43.948837 0.073527 -0.512957 0.855260 
2.207239 19.923761 7.146095 0.509488 0.829661 -0.228221 
-1.153883 -14.728209 9.785889 -0.105591 -0.791140 -0.602452 
2.360566 -8.384603 3.212441 -0.088988 0.498173 -0.862499 
-9.474767 -13.368181 11.455115 -0.237740 0.046619 -0.970210 
-1.437024 -4.854291 50.301151 0.102999 -0.603217 -0.790898 
4.426206 -12.406988 8.039216 -0.371151 0.742784 0.557242 
3.636901 -23.609146 36.426483 0.769079 0.616264 0.169517 
-8.312012 -15.259912 21.852343 0.680241 0.707596 -0.191260 
10.393121 -11.356873 44.485580 -0.918502 0.213212 -0.333009 
7.735840 -6.431240 48.646034 0.607940 0.415658 0.676490 
-1.333948 -12.700977 7.199758 -0.091844 0.444612 0.891002 
9.683824 -17.923416 40.431026 -0.657361 0.599851 -0.456132 
-10.455725 18.640881 26.889362 0.765821 -0.621916 0.163520 
11.291958 -12.388085 41.570454 0.922920 -0.196396 0.331129 
13.018332 -8.315201 26.471758 0.778152 -0.354095 0.518744 
-9.518874 18.817041 16.012932 -0.741228 0.665961 0.084128 
3.237620 20.002110 11.309451 -0.590169 -0.806973 0.022225 
-12.752406 12.107500 27.451134 0.920304 0.371972 0.121153 
0.681887 12.250767 0.000000 0.000000 0.000000 -1.000000 
5.368021 16.004694 6.333207 0.906279 0.354534 -0.230142 
4.550121 23.225206 38.647579 -0.289774 -0.915923 -0.277698 
2.361790 -7.469521 0.000000 -0.461934 0.349733 -0.815048 
13.441797 4.541342 15.776042 -0.340878 0.712692 -0.613085 
-6.888227 -19.755798 33.167740 0.418641 0.684352 0.596995 
-4.358236 -16.044817 49.546040 -0.479658 -0.503378 0.718706 
-2.272951 23.721107 38.518692 -0.036281 -0.917456 -0.396180 
-1.058993 -11.958656 51.749279 0.340130 -0.195846 0.919759 
-9.717335 9.406814 15.847498 -0.934541 0.274605 0.226330 
14.365519 -4.347765 0.558613 0.175554 -0.088191 0.980512 
3.104652 -21.747009 40.908855 -0.310956 0.903185 -0.295910 
14.020658 6.350008 13.107027 0.752657 0.520613 0.403076 
-3.979915 -10.328066 3.765558 -0.709562 0.628390 -0.318823 
3.568336 -17.471193 25.007402 0.192313 -0.849010 0.492136 
-13.042602 14.271459 30.122478 -0.890721 -0.388269 0.236354 
10.163103 -4.150186 42.151615 0.872319 0.454257 0.180856 
9.592466 17.748384 32.613308 0.979376 0.199069 -0.034552 
-12.184437 -10.020647 0.393910 0.903681 0.413328 0.111891 
11.669766 -13.380661 13.604095 -0.793315 0.118991 -0.597070 
4.048636 11.149215 0.000000 0.000000 0.000000 -1.000000 
-15.904301 -3.802403 5.435606 0.912838 0.109812 0.393279 
-10.593836 16.925741 11.175500 0.894274 -0.414997 0.167485 
-7.629831 -18.907246 42.039780 0.247658 -0.327358 -0.911868 
11.227666 -7.365922 36.133114 0.928600 0.307913 -0.207106 
5.338494 -19.311373 45.761681 -0.488932 0.589713 -0.642795 
8.767897 19.968664 31.006184 -0.842144 -0.531281 0.092383 
-7.934721 17.082336 40.864513 -0.668756 0.211335 0.712813 
8.126706 -0.377578 28.703032 0.827030 0.418870 0.374927 
-14.542869 -10.030375 12.368269 0.768069 0.618279 -0.166737 
6.323493 16.897465 19.380953 -0.936256 -0.336712 0.100252 
8.830925 -4.368805 32.878437 0.932257 0.257649 -0.253996 
6.924501 -12.191240 9.781146 -0.466206 -0.708320 -0.530032 
-11.397383 -5.431971 36.634285 -0.893522 0.449019 -0.001048 
7.534386 11.858706 11.009480 -0.402359 -0.231465 -0.885738 
14.040832 -5.415901 24.138977 0.023899 -0.645708 -0.763210 
-13.714865 -14.511316 15.288954 -0.946725 -0.087951 -0.309800 
-4.032829 -15.647216 27.986914 -0.703525 -0.702999 -0.104137 
-12.836759 -15.970389 17.674280 0.511421 0.809200 -0.289212 
8.708040 -0.352541 27.815125 -0.706454 -0.514438 -0.486083 
7.419857 13.093488 3.075255 0.481248 0.857063 -0.183966 
1.749888 -18.382032 30.275164 0.247496 -0.437816 -0.864328 
-1.757084 -9.684468 4.514145 -0.097056 -0.744576 -0.660445 
-4.578384 19.846096 42.505032 0.234375 -0.248422 -0.939870 
-9.564071 -18.361813 37.680492 0.682876 0.694423 -0.226841 
0.414506 -24.459356 39.072655 -0.216711 0.943202 -0.251808 
-3.405717 -20.153494 32.004360 0.343906 0.597547 0.724339 
-11.717731 7.776935 29.630844 0.944870 0.318339 -0.076685 
-0.732548 -22.120184 43.300686 0.000729 -0.950076 0.312019 
-5.780065 -18.815701 45.807873 -0.626445 -0.675205 0.389441 
10.810658 -14.195363 13.839561 -0.063858 -0.628954 -0.774816 
2.325978 -20.155910 47.197189 -0.286835 0.803969 -0.520922 
2.707016 -16.225458 28.487684 0.307154 -0.931139 0.196562 
9.822563 11.811920 5.131185 0.634882 0.763282 -0.119692 
8.131344 -1.402752 39.745461 0.686013 0.719119 0.110698 
14.964362 6.103239 8.287827 -0.867000 -0.439720 0.234431 
-11.398168 10.670457 7.576077 0.882173 -0.458368 -0.108026 
-10.065615 -17.133947 33.598259 0.670010 0.521244 0.528575 
-8.218433 12.794234 0.197720 0.581743 0.812925 0.026996 
-4.593345 -19.651283 32.145130 0.257437 0.642413 0.721826 
14.454990 4.300188 14.857986 -0.758932 -0.416234 -0.500771 
-11.896984 9.113405 34.179024 0.917982 0.344925 -0.195793 
0.266128 -14.573298 51.031780 -0.133423 -0.086267 0.987297 
15.708308 3.103519 5.667330 0.661072 0.617552 -0.426162 
-14.183426 -12.951777 15.463618 0.955758 0.293917 -0.011842 
6.716913 15.587612 12.173988 -0.942204 -0.328245 0.067137 
-9.924822 18.594738 14.492835 0.717731 -0.689357 -0.098232 
9.843112 9.111362 29.383476 -0.924083 0.377979 0.056586 
